# 3D point list with one line of data per point:
#   POINT3D_ID, X, Y, Z, R, G, B, ERROR, TRACK[] as (IMAGE_ID, POINT2D_IDX)
# Number of points: 356, mean track length: 2
356 -12.5358 -4.93484 47.81 0 0 0 0.213926 1 2610 2 2490
355 -7.77765 -5.11788 43.9498 99 76 46 0.14514 1 2595 2 2473
354 -1.23133 -6.05496 48.3182 255 245 177 0.396324 1 2591 2 2463
353 -9.21406 -3.67195 45.5851 175 151 112 0.050182 1 2546 2 2412
352 -11.1594 -4.34904 48.3464 144 113 69 0.500323 1 2545 2 2440
351 8.45421 -5.41441 43.6001 255 252 176 0.154562 1 2544 2 2438
350 -7.44409 -10.0208 50.8954 242 206 133 0.176093 1 2536 2 2402
349 -5.45948 -1.09311 52.2169 197 161 108 0.0644415 1 2526 2 2442
348 -8.6007 -1.02803 50.8859 59 39 24 0.0499802 1 2524 2 2420
347 -10.3158 -0.885792 48.6939 5 0 0 0.776886 1 2478 2 2306
346 -8.45132 -5.43214 42.6284 212 183 132 0.0681012 1 2470 2 2364
345 -7.88571 -6.2995 42.9369 242 209 145 0.505431 1 2465 2 2406
344 -7.26176 -8.5412 48.8716 229 195 128 1.05584 1 2449 2 2265
343 9.12593 -9.94267 49.1655 52 41 34 0.630931 1 2446 2 2256
342 6.31374 -1.0199 52.0339 227 190 135 0.125473 1 2406 2 2379
341 -7.91064 -1.26346 51.2625 161 126 78 0.0138064 1 2402 2 2421
340 5.99356 -2.41969 50.6727 190 155 110 0.00130738 1 2398 2 2296
339 -3.81087 -2.0997 51.7712 160 129 87 0.0913397 1 2397 2 2301
338 -0.779824 -2.92551 51.3644 133 93 56 0.088313 1 2392 2 2294
337 -0.779824 -2.92551 51.3644 133 93 56 0.088313 1 2391 2 2293
336 -4.36877 -2.83189 49.6602 223 191 136 0.0287158 1 2389 2 2292
335 -2.69965 -3.67882 51.5616 245 197 131 0.0557842 1 2387 2 2191
334 -6.04565 -3.86613 48.4396 126 88 45 0.144623 1 2384 2 2285
333 6.03582 -5.37194 46.6698 202 164 115 0.173268 1 2380 2 2278
332 -4.5341 -5.77065 46.3799 218 179 121 0.329523 1 2376 2 2365
331 -8.43795 -6.11727 42.6178 147 112 76 0.0522893 1 2375 2 2272
330 -8.43795 -6.11727 42.6178 147 112 76 0.0522893 1 2374 2 2271
329 -9.41126 -6.49769 43.421 188 156 108 0.143789 1 2368 2 2357
328 -9.23459 -0.534869 48.6341 5 1 0 0.990691 1 2285 2 2309
327 -7.57022 -1.68689 50.8518 132 97 54 0.0111735 1 2280 2 2201
326 -7.13626 -2.06336 50.5485 172 132 85 0.6403 1 2268 2 2299
325 -0.235163 -2.98788 51.3566 232 191 128 0.0933467 1 2264 2 1991
324 -2.45241 -3.28727 51.0622 148 106 66 0.288404 1 2263 2 1979
323 -4.08419 -3.19849 49.658 136 98 57 0.053024 1 2262 2 2190
322 -5.72412 -3.35902 49.6184 202 161 107 0.0731284 1 2258 2 2189
321 8.64378 -4.08821 44.9273 232 202 154 0.168639 1 2256 2 2281
320 7.70789 -3.77091 46.548 232 196 139 0.0233571 1 2253 2 2180
319 -5.18947 -3.50347 49.4546 188 145 89 0.325729 1 2250 2 2287
318 -6.21882 -3.43178 48.6665 211 179 133 0.107785 1 2248 2 2188
317 -8.16654 -4.66877 46.6341 75 50 19 0.133675 1 2244 2 2178
316 7.34573 -5.51143 44.8894 243 212 151 0.182934 1 2240 2 2161
315 5.75111 -5.26476 47.1271 255 239 172 0.101387 1 2239 2 2168
314 4.95889 -5.38841 48.0273 255 244 171 0.0539426 1 2238 2 2175
313 -7.73909 -5.60926 45.1624 63 35 12 0.48819 1 2233 2 2276
312 -7.90047 -5.06046 45.1676 71 47 16 0.0151634 1 2231 2 1916
311 -8.02945 -5.48076 44.2131 166 138 98 0.0133598 1 2229 2 2275
310 5.02089 -5.76643 47.9637 149 111 66 0.0305414 1 2225 2 1907
309 -5.49992 -6.11804 46.3932 255 227 158 0.370188 1 2220 2 2166
308 -10.9416 -5.74674 46.7039 134 104 62 0.0173073 1 2218 2 2165
307 -11.6337 -6.24076 46.9176 177 136 75 0.10082 1 2217 2 2274
306 -8.33071 -6.48704 42.9312 251 220 161 0.198516 1 2206 2 1864
305 7.50073 -8.2309 47.9148 255 241 172 0.592404 1 2195 2 2149
304 -10.2582 -8.11652 44.323 192 158 102 0.0844985 1 2186 2 2134
303 -4.31622 -9.01912 50.088 255 253 200 0.141968 1 2179 2 1855
302 -6.66522 -9.16619 49.9075 146 107 58 0.149823 1 2178 2 2143
301 -8.7992 -0.821379 50.4903 39 24 8 0.0702827 1 2071 2 2027
300 -8.87164 -0.962764 49.3633 110 91 68 0.174813 1 2069 2 2205
299 8.647 -2.22664 47.672 188 160 126 0.221021 1 2055 2 2195
298 8.15063 -2.53586 47.2405 236 203 146 0.138857 1 2053 2 1985
297 3.93066 -2.43338 52.0941 254 209 143 0.307775 1 2049 2 1998
296 -8.64568 -2.19957 47.9849 113 88 62 0.0138259 1 2041 2 1989
295 -8.63872 -2.67557 47.8292 134 108 78 0.0556038 1 2039 2 1988
294 5.20961 -2.91167 52.1169 255 217 149 0.226333 1 2035 2 1608
293 4.76838 -2.94788 52.0839 255 216 149 0.087632 1 2034 2 1999
292 2.9209 -2.92988 51.7684 250 205 141 0.207299 1 2032 2 1994
291 -2.54781 -2.99256 50.9137 255 209 142 0.170569 1 2031 2 1990
290 -7.05267 -3.15198 49.3936 207 169 114 0.100361 1 2029 2 1977
289 -7.60169 -3.15319 49.2792 201 163 112 0.0566617 1 2027 2 1976
288 -8.35175 -2.81756 47.7797 68 43 17 0.00643374 1 2026 2 1973
287 -7.76408 -3.4031 48.9858 111 75 36 0.0924955 1 2011 2 1975
286 -7.91418 -3.61752 48.6008 174 144 103 0.00885094 1 2009 2 1974
285 -7.82846 -4.0117 48.0895 182 150 110 0.00934019 1 2008 2 1959
284 8.25031 -4.88335 43.8991 255 246 183 0.0881245 1 2005 2 1908
283 -5.29629 -4.30704 48.6165 211 175 121 0.0608176 1 1999 2 1960
282 -7.21139 -4.82057 47.3359 227 188 129 0.0884917 1 1998 2 1945
281 -8.25088 -4.53805 45.1769 156 129 91 0.00198056 1 1997 2 1942
280 8.0184 -5.36802 44.5333 255 254 192 0.0413303 1 1993 2 1897
279 7.83165 -5.18051 44.7669 255 220 158 0.328263 1 1992 2 2169
278 4.56949 -5.35984 47.9996 152 115 67 0.0882042 1 1990 2 1928
277 4.56949 -5.35984 47.9996 152 115 67 0.0882042 1 1989 2 1927
276 4.25633 -5.37275 47.9496 255 249 188 0.0563117 1 1988 2 1926
275 1.75387 -5.54861 47.6503 255 251 191 0.0321552 1 1986 2 1904
274 -0.244421 -5.37304 47.7402 252 224 166 0.338473 1 1985 2 2173
273 -3.14283 -5.36012 47.1885 172 147 109 0.502617 1 1978 2 1924
272 8.04545 -6.31765 45.7674 255 240 173 0.143021 1 1963 2 1896
271 4.98015 -6.06569 48.2317 255 245 171 0.474981 1 1960 2 1471
270 -2.39443 -5.9989 47.0009 219 172 112 0.141391 1 1959 2 2167
269 8.29862 -6.43399 44.7815 255 248 182 0.0819932 1 1948 2 1877
268 -8.59701 -6.62263 42.736 187 157 100 0.0673646 1 1939 2 732
267 -4.70466 -7.91656 49.1069 227 200 149 0.375829 1 1929 2 740
266 -7.36258 -7.69281 47.6823 248 206 141 0.175998 1 1926 2 1386
265 6.62697 -8.84908 50.4597 255 231 159 0.195414 1 1918 2 1371
264 -4.79248 -8.45591 49.5854 254 231 170 0.0719233 1 1917 2 1388
263 6.5523 -9.47645 51.2516 255 230 155 0.26816 1 1905 2 677
262 -7.99115 -8.98349 49.3554 243 210 159 0.081156 1 1899 2 1853
261 8.05813 0.596975 51.4353 216 180 134 0.0549614 1 1794 2 2048
260 8.24671 -0.267951 50.229 179 143 98 0.0949917 1 1759 2 1653
259 8.54071 -0.642623 49.7588 170 142 112 0.1379 1 1758 2 2025
258 7.47923 -0.718658 50.8306 208 166 112 0.333462 1 1755 2 1651
257 -8.3468 -0.705024 51.4627 129 99 66 0.259241 1 1728 2 1660
256 8.30164 -1.3945 48.6377 199 162 112 0.0460529 1 1719 2 1632
255 -4.99879 -1.52447 51.6413 106 69 34 0.00517614 1 1712 2 1643
254 -6.98529 -1.41899 51.1701 185 147 93 0.112713 1 1710 2 1641
253 -7.46899 -1.42312 51.0888 177 143 96 0.0467038 1 1708 2 1639
252 -7.25099 -1.63004 51.0501 137 98 50 0.0372184 1 1707 2 1624
251 -8.23914 -1.45281 50.6012 149 116 77 0.0486028 1 1706 2 1638
250 3.4136 -2.43633 52.003 255 225 162 0.078623 1 1693 2 1997
249 2.88432 -2.39275 51.9913 109 73 39 0.291516 1 1692 2 1996
248 2.88432 -2.39275 51.9913 109 73 39 0.291516 1 1691 2 1995
247 2.33779 -2.44416 51.8426 253 216 149 0.0927749 1 1689 2 1602
246 -4.90249 -1.93481 51.0302 126 90 50 0.0722514 1 1687 2 1625
245 -8.32753 -1.96989 49.8992 95 60 22 0.0152228 1 1682 2 1620
244 -8.36231 -2.53244 47.9987 61 36 8 0.0854062 1 1680 2 987
243 -8.85932 -2.45317 46.2432 131 109 86 0.167453 1 1679 2 986
242 8.14437 -2.83578 46.6317 244 210 156 0.0267394 1 1674 2 1540
241 5.32795 -2.68472 52.0571 217 171 109 0.0287992 1 1669 2 1610
240 4.94154 -3.19779 52.2411 236 186 122 0.0494567 1 1668 2 1559
239 4.12685 -2.89307 52.0039 147 106 57 0.0618218 1 1667 2 1018
238 1.46282 -2.68428 51.4764 218 169 105 0.0887946 1 1665 2 1597
237 1.10361 -2.70138 51.465 207 158 96 0.127845 1 1664 2 1993
236 1.64709 -2.90207 51.5136 255 222 164 0.0219479 1 1663 2 1601
235 0.679607 -2.71732 51.4231 203 151 86 0.0125135 1 1662 2 1992
234 0.281615 -2.92451 51.2572 255 227 166 0.156857 1 1661 2 1593
233 -0.408865 -2.49148 51.4094 255 228 172 0.104353 1 1660 2 1592
232 -1.14589 -2.94874 51.1418 254 224 171 0.0141072 1 1657 2 1591
231 -1.97108 -2.54731 51.2076 255 240 177 0.061673 1 1655 2 1589
230 -2.2232 -2.74379 51.032 164 121 69 0.0350817 1 1654 2 1587
229 -2.2232 -2.74379 51.032 164 121 69 0.0350817 1 1653 2 1586
228 -2.78263 -2.8143 50.9044 181 135 82 0.167649 1 1652 2 1584
227 -2.78263 -2.8143 50.9044 181 135 82 0.167649 1 1651 2 1583
226 -3.19542 -2.58788 50.9007 229 188 136 0.0839873 1 1650 2 1585
225 -3.31362 -2.8258 50.8194 153 111 63 0.0353685 1 1649 2 1581
224 -3.31362 -2.8258 50.8194 153 111 63 0.0353685 1 1648 2 1580
223 -3.73209 -2.77169 50.5644 172 134 81 0.143176 1 1647 2 1577
222 -3.31006 -3.21985 50.839 184 137 81 0.0982322 1 1646 2 958
221 -4.81495 -2.67323 50.4703 155 116 67 0.0678283 1 1645 2 1573
220 -5.7637 -2.80779 50.2215 156 117 65 0.0715006 1 1644 2 1568
219 -8.02368 -2.92644 49.2328 166 131 85 0.0212031 1 1643 2 1564
218 -8.00054 -3.27456 49.0322 167 132 88 0.0831422 1 1642 2 1552
217 -8.42717 -3.25937 48.3356 77 51 21 0.0306158 1 1640 2 1549
216 8.5032 -3.86528 45.3578 201 169 115 0.343431 1 1634 2 1523
215 -5.39147 -3.51876 49.4028 182 145 91 0.100407 1 1622 2 1555
214 -8.0125 -4.14984 48.0408 101 67 26 0.0437961 1 1615 2 1530
213 -11.0435 -3.7122 48.4802 137 110 73 0.34671 1 1610 2 1545
212 6.70283 -4.36108 47.1406 211 172 117 0.189637 1 1604 2 1953
211 6.25504 -4.92434 47.5192 191 161 113 0.0517017 1 1600 2 1505
210 -7.34823 -4.46673 47.6931 202 166 111 0.156729 1 1595 2 1947
209 -7.98089 -4.40217 46.7752 149 119 83 0.0110272 1 1592 2 1514
208 -7.93106 -4.79813 46.4748 156 126 88 0.0161274 1 1591 2 1513
207 8.14792 -5.39807 43.9671 243 216 154 0.211655 1 1580 2 1437
206 6.49696 -5.09845 46.095 255 232 168 0.0174225 1 1579 2 1475
205 6.30495 -5.32727 46.9163 245 213 158 0.0482324 1 1577 2 1474
204 2.52399 -5.46872 47.7062 255 243 180 0.176949 1 1566 2 1905
203 -0.269768 -5.62144 47.5073 127 92 44 0.257407 1 1565 2 1902
202 -0.530631 -5.67028 47.408 255 248 195 0.0384714 1 1564 2 1466
201 -4.71441 -5.02317 47.5819 205 166 105 0.362463 1 1562 2 1922
200 -5.71555 -5.32513 46.195 209 180 136 0.382354 1 1558 2 1920
199 3.03957 -5.84631 47.7039 255 255 192 0.255323 1 1548 2 1469
96 0.0351066 -5.9369 47.3661 255 237 168 0.0090988 1 950 2 827
95 -1.43838 -5.94113 47.2385 238 190 120 0.0193011 1 947 2 1462
94 -1.58601 -6.09299 47.0943 255 236 165 0.285882 1 946 2 822
93 -2.87189 -6.0554 46.9238 185 142 90 0.0346973 1 943 2 818
92 -2.73401 -6.21438 46.9446 255 239 175 0.0965206 1 940 2 820
91 -2.8265 -6.38133 47.0592 186 144 81 0.0192898 1 939 2 170
90 -3.57317 -5.96487 46.4435 216 178 119 0.203743 1 938 2 815
89 -3.71254 -5.96509 46.0779 255 246 186 0.0812247 1 936 2 814
88 -3.8766 -6.16647 46.0088 255 233 165 0.0182424 1 935 2 792
87 -5.14864 -5.77425 46.2283 172 133 78 0.0763137 1 933 2 813
86 -6.67939 -5.96498 45.7056 232 199 139 0.033005 1 930 2 1453
85 -7.0257 -5.97337 45.6045 224 187 131 0.335171 1 928 2 1452
84 -7.20335 -5.87226 45.7458 164 129 74 0.0429665 1 927 2 809
83 -7.79824 -6.01416 43.6125 139 115 77 0.142275 1 926 2 782
82 -8.09789 -6.14509 42.9886 223 190 136 0.0745588 1 925 2 781
81 -8.69416 -5.77556 42.4536 221 188 136 0.0651923 1 923 2 779
80 -11.3937 -6.07119 47.1538 143 110 58 0.0593755 1 921 2 183
79 -2.04307 -8.99546 51.4751 255 248 165 0.0477599 1 828 2 751
78 -3.00562 -8.74753 51.4949 253 237 171 0.0394498 1 825 2 749
77 -3.14062 -8.90213 51.3844 220 176 98 0.0453672 1 823 2 747
76 -4.38842 -8.74484 50.0974 180 142 81 0.041287 1 820 2 704
75 -7.99714 -8.06577 47.7934 159 124 70 0.0360737 1 810 2 734
74 8.59021 -9.03156 48.1794 209 176 112 0.136583 1 793 2 91
73 8.59021 -9.03156 48.1794 209 176 112 0.136583 1 792 2 90
72 8.34551 -9.10387 48.2576 198 163 104 0.142094 1 791 2 680
71 6.70211 -9.27616 50.8878 255 231 158 0.184691 1 786 2 121
70 -2.16502 -9.227 51.5939 255 214 134 0.0505189 1 772 2 709
69 -2.16502 -9.227 51.5939 255 214 134 0.0505189 1 771 2 710
68 -3.94316 -9.24131 50.3584 249 216 164 0.0668024 1 765 2 111
67 -5.80164 -9.2547 50.2336 168 126 66 0.0094722 1 761 2 107
66 -6.03558 -8.99065 49.7641 175 134 73 0.076469 1 760 2 699
65 -7.59764 -9.37242 49.864 241 204 152 0.0267816 1 757 2 696
64 -9.30611 -9.09771 48.8346 177 140 85 0.0166353 1 751 2 101
63 8.11185 0.215791 51.0107 216 181 136 0.043637 1 516 2 1107
62 8.18607 -0.841059 49.5443 174 139 90 0.089113 1 488 2 1088
61 -8.6657 -0.664236 50.853 80 63 48 0.120631 1 466 2 441
60 8.27621 -1.09337 49.0934 190 155 106 0.0850936 1 449 2 1057
59 -5.59661 -0.963471 52.1528 176 139 86 0.0964204 1 439 2 427
58 -6.36798 -0.900872 51.8308 109 77 39 0.0842536 1 438 2 1072
57 -6.36798 -0.900872 51.8308 109 77 39 0.0842536 1 437 2 1073
56 -6.23933 -1.05457 51.7088 160 125 84 0.0123211 1 436 2 423
55 -6.23933 -1.05457 51.7088 160 125 84 0.0123211 1 435 2 422
54 -6.32452 -1.19199 51.599 121 86 47 0.028482 1 434 2 1071
53 -6.83499 -1.60305 51.2185 148 108 59 0.00516927 1 430 2 416
52 -7.84799 -1.59936 51.0165 114 80 44 0.015044 1 429 2 415
51 7.80772 -1.81387 49.4013 219 184 130 0.0500306 1 422 2 374
50 6.54576 -1.80306 50.8938 233 194 139 0.0403744 1 421 2 1055
49 0.0337125 -2.46567 51.5126 148 108 63 0.122696 1 414 2 366
48 0.0337125 -2.46567 51.5126 148 108 63 0.122696 1 413 2 367
47 -1.88389 -2.36232 51.3108 176 136 86 0.0363555 1 411 2 1007
22 7.39027 -4.14459 46.0258 255 227 166 0.0429656 1 349 2 1506
21 0.985155 -3.36445 51.6602 255 242 172 0.00245264 1 339 2 329
20 -4.69446 -3.71574 49.2718 196 162 114 0.085489 1 335 2 926
19 -5.13041 -3.74703 49.2297 191 152 97 0.00983429 1 334 2 925
18 -5.40643 -4.0364 48.9408 197 158 104 0.119732 1 333 2 295
17 -7.17182 -3.78183 48.9348 153 114 62 0.0257338 1 332 2 918
16 -11.4925 -3.79447 49.5139 91 65 35 0.0362754 1 328 2 314
15 -11.4358 -4.00963 49.17 104 75 42 0.0496285 1 326 2 911
14 5.87179 -4.23273 48.531 202 164 112 0.0401437 1 309 2 1521
13 6.09877 -4.82391 47.7563 223 191 140 0.0275682 1 308 2 869
12 -6.36013 -4.85135 47.425 240 201 139 0.163909 1 301 2 260
11 -7.48209 -4.61526 47.4571 139 102 56 0.0639993 1 300 2 258
4 -4.41181 -5.99883 46.1312 241 203 143 0.017328 1 263 2 191
3 -6.2821 -6.15086 45.3696 252 216 153 0.146267 1 260 2 787
2 -0.38538 -8.71505 51.9428 251 216 135 0.21848 1 185 2 756
1 8.13885 -8.94931 48.5265 248 221 156 0.138299 1 163 2 681
5 1.95876 -5.91283 47.531 255 255 192 0.0938159 1 270 2 195
6 -5.24336 -5.5517 46.5542 185 145 85 0.286349 1 284 2 189
7 3.55364 -5.23956 48.0368 187 147 97 0.179025 1 287 2 863
8 6.09203 -5.03319 47.3773 227 192 142 0.0597843 1 289 2 867
9 7.15767 -5.00481 46.271 231 198 146 0.0218976 1 290 2 199
10 -7.48209 -4.61526 47.4571 139 102 56 0.0639993 1 299 2 257
23 -8.60185 -3.38485 46.4033 99 69 34 0.0563284 1 357 2 291
24 -6.09919 -3.26993 48.9074 201 165 114 0.010112 1 358 2 948
25 -5.28969 -3.22423 49.7929 210 169 111 0.125623 1 360 2 953
26 -4.15082 -2.9638 49.7181 207 173 123 0.151603 1 363 2 956
27 -3.23466 -3.01015 50.7646 215 172 119 0.1126 1 364 2 359
28 -3.04457 -3.30507 51.0102 218 173 118 0.0455137 1 365 2 326
29 0.0949963 -3.1673 51.5366 255 206 135 0.0763597 1 366 2 327
30 -0.172342 -2.74078 51.3882 192 144 90 0.0399321 1 367 2 1011
31 -0.0864359 -2.8941 51.2936 246 207 149 0.0366037 1 368 2 362
32 -0.0830251 -2.59073 51.5011 223 183 137 0.114169 1 369 2 363
33 0.136991 -2.74462 51.4062 199 152 93 0.125747 1 372 2 364
34 0.378971 -2.58962 51.497 221 174 114 0.0297228 1 374 2 368
35 1.99673 -3.21895 51.7348 244 192 118 0.0675903 1 376 2 330
36 2.51154 -2.66963 51.7553 214 163 97 0.338872 1 379 2 1015
37 3.40963 -2.68838 51.9275 206 161 104 0.117839 1 381 2 1017
38 4.59708 -3.16561 52.1483 221 174 105 0.038812 1 383 2 335
39 5.38862 -2.50129 52.2072 245 200 136 0.0889546 1 384 2 370
40 6.30094 -2.75782 51.0497 223 188 138 0.0984608 1 388 2 339
41 6.72062 -3.0281 49.0926 235 195 135 0.0946186 1 389 2 341
42 -8.57274 -2.42375 47.7149 83 60 35 0.203941 1 397 2 350
43 -7.42814 -2.48753 49.9425 193 157 101 0.0613894 1 403 2 995
44 -6.92132 -2.48026 50.0477 182 143 95 0.17274 1 404 2 996
45 -6.99956 -2.00524 50.8117 172 132 85 0.0936269 1 405 2 1034
46 -6.73426 -2.03736 50.9213 192 156 105 0.104339 1 406 2 1035
97 0.385569 -5.98836 47.3113 255 254 186 0.0979921 1 951 2 828
98 1.61546 -5.92168 47.4694 255 254 184 0.00167564 1 953 2 829
99 4.61247 -5.97414 47.9593 255 229 155 0.0341742 1 963 2 832
100 5.31127 -5.74947 47.9009 255 243 180 0.0873411 1 965 2 833
101 -11.1806 -5.16551 47.8026 127 98 54 0.0564262 1 978 2 885
102 -7.99127 -5.58664 45.3142 121 100 75 0.265163 1 981 2 807
103 -6.26808 -4.98351 47.4518 164 123 68 0.121741 1 984 2 854
104 -5.30187 -5.64357 46.2763 220 182 131 0.0944057 1 985 2 811
105 -5.42315 -5.42039 46.8609 212 172 112 0.191712 1 986 2 1489
106 -5.49221 -5.13246 47.4016 219 180 122 0.513397 1 988 2 1921
107 -3.59212 -5.62896 46.4094 218 180 124 0.0505358 1 989 2 816
108 -3.36904 -5.40289 46.8841 185 153 102 0.0668106 1 992 2 1493
109 -2.9179 -5.55497 47.0495 151 111 60 0.075292 1 993 2 1460
110 2.03716 -5.50857 47.7399 156 119 71 0.184817 1 998 2 1468
111 2.62749 -5.6602 47.6707 255 231 153 0.290892 1 1001 2 830
112 6.53717 -5.35839 45.6991 255 235 171 0.0162649 1 1008 2 838
113 6.53717 -5.35839 45.6991 255 235 171 0.0162649 1 1009 2 837
114 7.19573 -5.36056 45.7772 236 203 146 0.0150817 1 1011 2 840
115 -5.60935 -4.74423 47.5034 216 180 125 0.151242 1 1023 2 265
116 -5.75663 -4.5758 47.7324 140 105 55 0.0335497 1 1024 2 894
117 -5.79489 -4.33594 48.0075 133 99 56 0.0435012 1 1025 2 897
118 6.0484 -4.60731 48.0111 225 190 138 0.0605581 1 1030 2 870
119 8.25545 -4.47071 44.5332 255 239 184 0.0087663 1 1035 2 1507
120 -8.03419 -3.85722 47.9801 111 78 37 0.0197861 1 1045 2 914
121 -8.14403 -3.76646 47.654 147 119 81 0.01606 1 1046 2 913
122 -8.08828 -3.50076 48.2733 102 71 31 0.0881669 1 1048 2 1551
123 -7.58159 -3.37699 49.1932 151 109 62 0.0409584 1 1050 2 1553
124 -4.00806 -3.72145 50.6274 152 109 60 0.104813 1 1054 2 954
125 -3.36942 -3.51017 51.008 137 96 50 0.0338027 1 1056 2 324
126 -3.36942 -3.51017 51.008 137 96 50 0.0338027 1 1057 2 323
127 -2.9345 -3.46327 51.1902 151 103 53 0.0751597 1 1058 2 959
128 0.632554 -3.38048 51.6361 255 248 176 0.128909 1 1061 2 328
129 5.60666 -3.76649 49.3472 250 211 145 0.287099 1 1070 2 1533
130 -11.6536 -2.80502 50.8967 99 72 44 0.112424 1 1083 2 983
131 -8.86031 -3.15705 45.5426 110 87 55 0.118862 1 1084 2 941
132 -8.23793 -3.34002 48.3222 163 132 95 0.0076109 1 1087 2 946
133 -8.27094 -3.11127 48.3882 135 105 71 0.0141615 1 1088 2 947
134 -7.7093 -2.77069 49.5883 177 139 94 0.195461 1 1091 2 1566
135 -6.88676 -2.76842 49.7614 197 154 101 0.0852284 1 1093 2 1567
136 -6.71524 -2.58395 49.842 142 101 52 0.224536 1 1094 2 997
137 -5.60546 -3.01253 49.95 200 161 108 0.0233446 1 1097 2 951
138 -6.04817 -2.93634 49.4563 162 122 73 0.0249375 1 1098 2 356
139 -5.9584 -2.76563 49.8431 196 161 108 0.123454 1 1099 2 1001
140 -6.17763 -2.62203 49.8656 149 114 66 0.0271278 1 1101 2 1000
141 -5.4256 -3.19324 49.5765 189 150 97 0.0816783 1 1103 2 952
142 -4.67254 -3.09874 49.6779 193 155 97 0.0564025 1 1105 2 955
143 -4.92767 -2.92782 50.1308 205 166 111 0.295892 1 1106 2 1572
144 -4.04421 -2.83106 50.1904 157 120 71 0.0876462 1 1108 2 1574
145 -1.63392 -2.51944 51.1786 249 210 158 0.0170277 1 1110 2 1590
146 -1.1819 -2.73983 51.2492 197 149 92 0.14123 1 1112 2 1009
147 -0.30546 -3.27101 51.4744 206 155 92 0.244785 1 1113 2 960
148 -0.329445 -2.88047 51.348 249 207 148 0.0147069 1 1115 2 1010
149 1.24055 -2.47177 51.6747 243 198 137 0.0407953 1 1118 2 1599
150 1.92589 -2.88671 51.5905 121 82 37 0.0470489 1 1119 2 1012
151 2.51254 -2.83556 51.7388 245 198 134 0.0117169 1 1120 2 1013
152 2.98073 -3.19012 51.873 228 177 110 0.0973297 1 1121 2 963
153 3.34385 -3.1631 51.9908 216 166 102 0.0837984 1 1122 2 964
154 3.70506 -2.66761 51.9921 207 159 94 0.0359306 1 1123 2 1604
155 4.20436 -2.5694 52.0828 218 168 96 0.0157109 1 1124 2 1019
156 7.12544 -3.09191 48.985 188 154 111 0.0028443 1 1128 2 972
157 7.12544 -3.09191 48.985 188 154 111 0.0028443 1 1129 2 973
158 6.52542 -2.64747 49.6767 211 174 116 0.00900049 1 1130 2 971
159 6.9557 -2.96925 49.027 225 189 138 0.0767348 1 1131 2 970
160 8.20907 -3.37707 46.1367 244 213 158 0.0325071 1 1136 2 902
161 8.32704 -3.08997 46.1319 229 197 142 0.417637 1 1138 2 936
162 -8.99899 -2.71713 45.8387 182 152 103 0.00201078 1 1149 2 945
163 -6.87427 -1.89347 50.9928 144 105 56 0.0207957 1 1155 2 1036
164 -6.12629 -2.29688 50.4217 114 79 34 0.31396 1 1157 2 1571
165 -5.55091 -1.92673 51.1668 196 157 101 0.0299753 1 1159 2 1043
166 -4.0531 -2.50639 50.3598 156 118 69 0.000268586 1 1160 2 1576
167 -3.3709 -2.38489 51.0099 128 91 45 0.126051 1 1161 2 1582
168 0.793076 -2.44331 51.5041 248 207 152 0.274046 1 1166 2 1596
169 5.09287 -2.39613 52.2685 254 210 145 0.0123143 1 1171 2 1611
170 6.07297 -1.6148 52.4452 186 150 104 0.00874433 1 1176 2 1630
171 6.67886 -1.94778 50.6138 198 157 104 0.359227 1 1178 2 1026
172 6.67886 -1.94778 50.6138 198 157 104 0.359227 1 1179 2 1025
173 6.99649 -1.84122 50.8279 239 203 153 0.164259 1 1180 2 1631
174 -8.50648 -1.69239 49.9587 90 63 40 0.0743217 1 1186 2 1031
175 -8.45095 -1.37414 50.7134 75 46 16 0.0159872 1 1187 2 1637
176 -8.62089 -1.15297 50.6864 71 53 36 0.00245408 1 1188 2 1067
177 -6.13476 -1.48863 51.4267 178 139 93 0.102683 1 1189 2 1642
178 8.17583 -0.989641 49.5099 214 179 131 0.0341905 1 1191 2 1058
179 -8.63679 -0.887044 50.7565 71 51 36 0.137066 1 1206 2 1068
180 -7.30576 -9.38293 49.8675 239 206 155 0.0732811 1 1430 2 697
181 -5.99416 -8.65546 49.5647 176 141 83 0.102659 1 1458 2 700
182 -0.460533 -8.93163 51.8243 255 254 173 0.0975538 1 1461 2 1393
183 -0.68001 -8.74818 51.8425 255 217 134 0.0671772 1 1462 2 1391
184 -0.68001 -8.74818 51.8425 255 217 134 0.0671772 1 1463 2 1392
185 -7.54902 -7.95229 47.8002 187 151 92 0.0311981 1 1491 2 736
186 8.0426 -6.76382 46.149 255 234 171 0.0693312 1 1522 2 1405
187 -8.3772 -5.75252 42.7393 165 131 85 0.0287871 1 1528 2 1418
188 -8.02299 -5.96028 43.1551 110 85 45 0.0795691 1 1529 2 1421
189 -8.02299 -5.96028 43.1551 110 85 45 0.0795691 1 1530 2 1420
190 -7.97246 -5.74422 43.6958 182 154 111 0.0548107 1 1531 2 1883
191 -7.2018 -6.35703 45.1397 196 153 94 0.398814 1 1532 2 1423
192 -7.39355 -5.83701 45.6868 193 159 110 0.0618306 1 1535 2 1451
193 -5.30202 -5.86784 45.9141 240 202 147 0.0635588 1 1538 2 1458
194 -3.05996 -5.70697 46.9303 245 208 152 0.0474977 1 1540 2 1459
195 -2.72527 -5.71307 47.0172 255 239 176 0.0864507 1 1541 2 1461
196 -0.949409 -5.90819 47.1935 248 208 138 0.274168 1 1542 2 1463
197 -0.533977 -6.05642 47.2517 255 252 182 0.00156644 1 1543 2 825
198 -0.143786 -6.04258 47.328 189 145 85 0.0120873 1 1544 2 1464
